  0.850651  0.525731  0.000000
  0.850651  -0.525731  0.000000
  0.525731  0.000000  0.850651
  0.525731  0.000000  -0.850651
  0.000000  0.850651  0.525731
  0.000000  0.850651  -0.525731
  0.000000  -0.850651  0.525731
  0.000000  -0.850651  -0.525731
  -0.525731  0.000000  0.850651
  -0.525731  0.000000  -0.850651
  -0.850651  0.525731  0.000000
  -0.850651  -0.525731  0.000000
  0.983024  0.183479  0.000000
  0.983024  -0.183479  0.000000
  0.851981  0.395511  0.343074
  0.738585  0.212031  0.639950
  0.851981  0.395511  -0.343074
  0.738585  0.212031  -0.639950
  0.639950  0.738585  0.212031
  0.343074  0.851981  0.395511
  0.639950  0.738585  -0.212031
  0.343074  0.851981  -0.395511
  0.851981  -0.395511  0.343074
  0.738585  -0.212031  0.639950
  0.851981  -0.395511  -0.343074
  0.738585  -0.212031  -0.639950
  0.639950  -0.738585  0.212031
  0.343074  -0.851981  0.395511
  0.639950  -0.738585  -0.212031
  0.343074  -0.851981  -0.395511
  0.395511  0.343074  0.851981
  0.212031  0.639950  0.738585
  0.395511  -0.343074  0.851981
  0.212031  -0.639950  0.738585
  0.183479  0.000000  0.983024
  -0.183479  0.000000  0.983024
  0.395511  0.343074  -0.851981
  0.212031  0.639950  -0.738585
  0.395511  -0.343074  -0.851981
  0.212031  -0.639950  -0.738585
  0.183479  0.000000  -0.983024
  -0.183479  0.000000  -0.983024
  0.000000  0.983024  0.183479
  0.000000  0.983024  -0.183479
  -0.212031  0.639950  0.738585
  -0.395511  0.343074  0.851981
  -0.343074  0.851981  0.395511
  -0.639950  0.738585  0.212031
  -0.212031  0.639950  -0.738585
  -0.395511  0.343074  -0.851981
  -0.343074  0.851981  -0.395511
  -0.639950  0.738585  -0.212031
  0.000000  -0.983024  0.183479
  0.000000  -0.983024  -0.183479
  -0.212031  -0.639950  0.738585
  -0.395511  -0.343074  0.851981
  -0.343074  -0.851981  0.395511
  -0.639950  -0.738585  0.212031
  -0.212031  -0.639950  -0.738585
  -0.395511  -0.343074  -0.851981
  -0.343074  -0.851981  -0.395511
  -0.639950  -0.738585  -0.212031
  -0.738585  0.212031  0.639950
  -0.851981  0.395511  0.343074
  -0.738585  -0.212031  0.639950
  -0.851981  -0.395511  0.343074
  -0.738585  0.212031  -0.639950
  -0.851981  0.395511  -0.343074
  -0.738585  -0.212031  -0.639950
  -0.851981  -0.395511  -0.343074
  -0.983024  0.183479  0.000000
  -0.983024  -0.183479  0.000000
  0.937224  0.015543  -0.348381
  0.937224  0.015543  0.348381
  0.588843  0.579236  -0.563693
  0.588843  0.579236  0.563693
  0.373531  0.927618  0.000000
  0.588843  -0.579236  0.563693
  0.373531  -0.927618  0.000000
  0.588843  -0.579236  -0.563693
  0.015543  0.348381  0.937224
  0.015543  -0.348381  0.937224
  0.015543  -0.348381  -0.937224
  0.015543  0.348381  -0.937224
  -0.348381  0.937224  0.015543
  -0.563693  0.588843  0.579236
  -0.563693  0.588843  -0.579236
  -0.563693  -0.588843  0.579236
  -0.348381  -0.937224  0.015543
  -0.563693  -0.588843  -0.579236
  -0.927618  -0.000000  0.373531
  -0.927618  0.000000  -0.373531
