  0.000000  0.000000  -1.000000
  -0.020322  0.087103  -0.995992
  -0.126076  0.008525  -0.991984
  -0.086913  -0.127866  -0.987976
  0.053682  -0.170075  -0.983968
  0.178769  -0.087864  -0.979960
  0.209391  0.060608  -0.975952
  0.133698  0.193520  -0.971944
  -0.009127  0.251032  -0.967936
  -0.159212  0.213294  -0.963928
  -0.262784  0.097460  -0.959920
  -0.288196  -0.056354  -0.955912
  -0.230642  -0.201701  -0.951904
  -0.108307  -0.299605  -0.947896
  0.046280  -0.327008  -0.943888
  0.196204  -0.279517  -0.939880
  0.308898  -0.169488  -0.935872
  0.362197  -0.021061  -0.931864
  0.347212  0.136116  -0.927856
  0.268250  0.273033  -0.923848
  0.140456  0.366288  -0.919840
  -0.013956  0.401320  -0.915832
  -0.169995  0.373737  -0.911824
  -0.303970  0.288917  -0.907816
  -0.396806  0.160240  -0.903808
  -0.436256  0.006456  -0.899800
  -0.417919  -0.151332  -0.895792
  -0.345114  -0.292606  -0.891784
  -0.227810  -0.399946  -0.887776
  -0.080872  -0.460885  -0.883768
  0.078060  -0.468967  -0.879760
  0.230783  -0.424026  -0.875752
  0.360572  -0.331740  -0.871743
  0.453859  -0.202602  -0.867735
  0.501422  -0.050508  -0.863727
  0.499027  0.108879  -0.859719
  0.447519  0.259779  -0.855711
  0.352420  0.387817  -0.851703
  0.223130  0.481275  -0.847695
  0.071840  0.532006  -0.843687
  -0.087716  0.535952  -0.839679
  -0.241542  0.493265  -0.835671
  -0.376585  0.408069  -0.831663
  -0.481770  0.287897  -0.827655
  -0.548800  0.142910  -0.823647
  -0.572682  -0.015056  -0.819639
  -0.551947  -0.173493  -0.815631
  -0.488599  -0.320216  -0.811623
  -0.387799  -0.444263  -0.807615
  -0.257335  -0.536651  -0.803607
  -0.106947  -0.590934  -0.799599
  0.052462  -0.603558  -0.795591
  0.209631  -0.573978  -0.791583
  0.353738  -0.504574  -0.787575
  0.475110  -0.400367  -0.783567
  0.565820  -0.268580  -0.779559
  0.620144  -0.118078  -0.775551
  0.634837  0.041270  -0.771543
  0.609252  0.199253  -0.767535
  0.545281  0.345970  -0.763527
  0.447145  0.472433  -0.759519
  0.321057  0.571074  -0.755511
  0.174778  0.636157  -0.751503
  0.017108  0.664047  -0.747495
  -0.142667  0.653355  -0.743487
  -0.295320  0.604944  -0.739479
  -0.432208  0.521803  -0.735471
  -0.545738  0.408818  -0.731463
  -0.629753  0.272435  -0.727455
  -0.679824  0.120265  -0.723447
  -0.693439  -0.039363  -0.719439
  -0.670079  -0.197870  -0.715431
  -0.611187  -0.346884  -0.711423
  -0.520035  -0.478673  -0.707415
  -0.401508  -0.586524  -0.703407
  -0.261806  -0.665056  -0.699399
  -0.108099  -0.710455  -0.695391
  0.051859  -0.720625  -0.691383
  0.210127  -0.695243  -0.687375
  0.358969  -0.635729  -0.683367
  0.491224  -0.545134  -0.679359
  0.600632  -0.427952  -0.675351
  0.682109  -0.289873  -0.671343
  0.731958  -0.137484  -0.667335
  0.748005  0.022053  -0.663327
  0.729665  0.181351  -0.659319
  0.677930  0.333135  -0.655311
  0.595291  0.470568  -0.651303
  0.485587  0.587550  -0.647295
  0.353813  0.678969  -0.643287
  0.205867  0.740906  -0.639279
  0.048279  0.770779  -0.635271
  -0.112087  0.767427  -0.631263
  -0.268334  0.731128  -0.627255
  -0.413825  0.663561  -0.623246
  -0.542456  0.567702  -0.619238
  -0.648904  0.447678  -0.615230
  -0.728829  0.308571  -0.611222
  -0.779035  0.156189  -0.607214
  -0.797579  -0.003181  -0.603206
  -0.783823  -0.163042  -0.599198
  -0.738440  -0.316947  -0.595190
  -0.663358  -0.458759  -0.591182
  -0.561664  -0.582889  -0.587174
  -0.437461  -0.684503  -0.583166
  -0.295691  -0.759699  -0.579158
  -0.141924  -0.805642  -0.575150
  0.017861  -0.820657  -0.571142
  0.177516  -0.804268  -0.567134
  0.330958  -0.757202  -0.563126
  0.472402  -0.681339  -0.559118
  0.596565  -0.579623  -0.555110
  0.698865  -0.455933  -0.551102
  0.775569  -0.314928  -0.547094
  0.823928  -0.161864  -0.543086
  0.842252  -0.002387  -0.539078
  0.829963  0.157673  -0.535070
  0.787596  0.312516  -0.531062
  0.716761  0.456583  -0.527054
  0.620075  0.584747  -0.523046
  0.501053  0.692492  -0.519038
  0.363966  0.776062  -0.515030
  0.213688  0.832583  -0.511022
  0.055513  0.860148  -0.507014
  -0.105035  0.857877  -0.503006
  -0.262390  0.825925  -0.498998
  -0.411145  0.765470  -0.494990
  -0.546227  0.678655  -0.490982
  -0.663069  0.568503  -0.486974
  -0.757755  0.438807  -0.482966
  -0.827146  0.293989  -0.478958
  -0.868975  0.138944  -0.474950
  -0.881911  -0.021126  -0.470942
  -0.865593  -0.180890  -0.466934
  -0.820628  -0.335065  -0.462926
  -0.748562  -0.478590  -0.458918
  -0.651818  -0.606787  -0.454910
  -0.533604  -0.715510  -0.450902
  -0.397807  -0.801271  -0.446894
  -0.248852  -0.861351  -0.442886
  -0.091561  -0.893870  -0.438878
  0.069010  -0.897845  -0.434870
  0.227733  -0.873210  -0.430862
  0.379571  -0.820806  -0.426854
  0.519734  -0.742346  -0.422846
  0.643833  -0.640355  -0.418838
  0.748005  -0.518078  -0.414830
  0.829036  -0.379375  -0.410822
  0.884448  -0.228594  -0.406814
  0.912572  -0.070431  -0.402806
  0.912591  0.090215  -0.398798
  0.884556  0.248398  -0.394790
  0.829378  0.399276  -0.390782
  0.748790  0.538256  -0.386774
  0.645289  0.661130  -0.382766
  0.522052  0.764202  -0.378758
  0.382834  0.844394  -0.374749
  0.231855  0.899330  -0.370741
  0.073660  0.927405  -0.366733
  -0.087008  0.927825  -0.362725
  -0.245360  0.900622  -0.358717
  -0.396697  0.846648  -0.354709
  -0.536551  0.767543  -0.350701
  -0.660814  0.665679  -0.346693
  -0.765856  0.544088  -0.342685
  -0.848626  0.406363  -0.338677
  -0.906739  0.256554  -0.334669
  -0.938538  0.099045  -0.330661
  -0.943136  -0.061579  -0.326653
  -0.920440  -0.220660  -0.322645
  -0.871142  -0.373606  -0.318637
  -0.796701  -0.516020  -0.314629
  -0.699287  -0.643826  -0.310621
  -0.581722  -0.753384  -0.306613
  -0.447389  -0.841589  -0.302605
  -0.300138  -0.905956  -0.298597
  -0.144169  -0.944687  -0.294589
  0.016089  -0.956715  -0.290581
  0.176100  -0.941735  -0.286573
  0.331353  -0.900201  -0.282565
  0.477488  -0.833314  -0.278557
  0.610414  -0.742979  -0.274549
  0.726427  -0.631752  -0.270541
  0.822307  -0.502763  -0.266533
  0.895405  -0.359626  -0.262525
  0.943714  -0.206333  -0.258517
  0.965920  -0.047149  -0.254509
  0.961438  0.113517  -0.250501
  0.930418  0.271225  -0.246493
  0.873743  0.421633  -0.242485
  0.792996  0.560612  -0.238477
  0.690418  0.684359  -0.234469
  0.568838  0.789501  -0.230461
  0.431598  0.873180  -0.226453
  0.282456  0.933133  -0.222445
  0.125486  0.967749  -0.218437
  -0.035041  0.976111  -0.214429
  -0.194764  0.958014  -0.210421
  -0.349360  0.913970  -0.206413
  -0.494653  0.845193  -0.202405
  -0.626728  0.753558  -0.198397
  -0.742039  0.641554  -0.194389
  -0.837494  0.512209  -0.190381
  -0.910547  0.369011  -0.186373
  -0.959254  0.215810  -0.182365
  -0.982330  0.056716  -0.178357
  -0.979175  -0.104013  -0.174349
  -0.949892  -0.262086  -0.170341
  -0.895279  -0.413290  -0.166333
  -0.816808  -0.553602  -0.162325
  -0.716579  -0.679301  -0.158317
  -0.597268  -0.787058  -0.154309
  -0.462051  -0.874024  -0.150301
  -0.314518  -0.937911  -0.146293
  -0.158579  -0.977040  -0.142285
  0.001640  -0.990392  -0.138277
  0.161909  -0.977629  -0.134269
  0.318001  -0.939099  -0.130261
  0.465809  -0.875832  -0.126253
  0.601448  -0.789504  -0.122244
  0.721358  -0.682395  -0.118236
  0.822399  -0.557326  -0.114228
  0.901927  -0.417587  -0.110220
  0.957869  -0.266846  -0.106212
  0.988768  -0.109055  -0.102204
  0.993826  0.051655  -0.098196
  0.972920  0.211080  -0.094188
  0.926607  0.365058  -0.090180
  0.856103  0.509570  -0.086172
  0.763256  0.640851  -0.082164
  0.650493  0.755480  -0.078156
  0.520758  0.850478  -0.074148
  0.377432  0.923377  -0.070140
  0.224250  0.972285  -0.066132
  0.065197  0.995937  -0.062124
  -0.095591  0.993723  -0.058116
  -0.253936  0.965706  -0.054108
  -0.405727  0.912620  -0.050100
  -0.547024  0.835847  -0.046092
  -0.674162  0.737383  -0.042084
  -0.783847  0.619786  -0.038076
  -0.873235  0.486107  -0.034068
  -0.940012  0.339814  -0.030060
  -0.982449  0.184701  -0.026052
  -0.999450  0.024787  -0.022044
  -0.990574  -0.135785  -0.018036
  -0.956054  -0.292854  -0.014028
  -0.896785  -0.442353  -0.010020
  -0.814302  -0.580410  -0.006012
  -0.710741  -0.703451  -0.002004
  -0.588785  -0.808287  0.002004
  -0.451591  -0.892205  0.006012
  -0.302711  -0.953030  0.010020
  -0.146001  -0.989185  0.014028
  0.014481  -0.999732  0.018036
  0.174578  -0.984397  0.022044
  0.330141  -0.943572  0.026052
  0.477139  -0.878314  0.030060
  0.611759  -0.790310  0.034068
  0.730510  -0.681839  0.038076
  0.830310  -0.555711  0.042084
  0.908564  -0.415195  0.046092
  0.963238  -0.263935  0.050100
  0.992908  -0.105856  0.054108
  0.996797  0.054938  0.058116
  0.974797  0.214269  0.062124
  0.927474  0.367993  0.066132
  0.856051  0.512110  0.070140
  0.762381  0.642866  0.074148
  0.648896  0.756852  0.078156
  0.518547  0.851092  0.082164
  0.374726  0.923122  0.086172
  0.221183  0.971054  0.090180
  0.061923  0.993627  0.094188
  -0.098895  0.990241  0.098196
  -0.257064  0.960975  0.102204
  -0.408444  0.906583  0.106212
  -0.549067  0.828479  0.110220
  -0.675239  0.728700  0.114228
  -0.783644  0.609855  0.118236
  -0.871423  0.475055  0.122244
  -0.936260  0.327839  0.126253
  -0.976434  0.172073  0.130261
  -0.990874  0.011858  0.134269
  -0.979185  -0.148582  0.138277
  -0.941660  -0.305011  0.142285
  -0.879276  -0.453290  0.146293
  -0.793670  -0.589490  0.150301
  -0.687095  -0.709993  0.154309
  -0.562366  -0.811591  0.158317
  -0.422785  -0.891574  0.162325
  -0.272055  -0.947797  0.166333
  -0.114185  -0.978747  0.170341
  0.046619  -0.983580  0.174349
  0.206062  -0.962147  0.178357
  0.359878  -0.915003  0.182365
  0.503941  -0.843391  0.186373
  0.634377  -0.749214  0.190381
  0.747668  -0.634985  0.194389
  0.840751  -0.503763  0.198397
  0.911098  -0.359072  0.202405
  0.956790  -0.204811  0.206413
  0.976568  -0.045143  0.210421
  0.969874  0.115606  0.214429
  0.936865  0.273074  0.218437
  0.878415  0.422972  0.222445
  0.796093  0.561209  0.226453
  0.692123  0.683998  0.230461
  0.569330  0.787964  0.234469
  0.431060  0.870239  0.238477
  0.281097  0.928540  0.242485
  0.123555  0.961236  0.246493
  -0.037227  0.967400  0.250501
  -0.196808  0.946832  0.254509
  -0.350767  0.900073  0.258517
  -0.494822  0.828391  0.262525
  -0.624953  0.733753  0.266533
  -0.737515  0.618772  0.270541
  -0.829341  0.486638  0.274549
  -0.897832  0.341033  0.278557
  -0.941036  0.186032  0.282565
  -0.957706  0.025986  0.286573
  -0.947337  -0.134593  0.290581
  -0.910188  -0.291161  0.294589
  -0.847279  -0.439270  0.298597
  -0.760365  -0.574696  0.302605
  -0.651893  -0.693559  0.306613
  -0.524935  -0.792438  0.310621
  -0.383108  -0.868468  0.314629
  -0.230469  -0.919432  0.318637
  -0.071404  -0.943823  0.322645
  0.089494  -0.940898  0.326653
  0.247562  -0.910701  0.330661
  0.398197  -0.854070  0.334669
  0.536991  -0.772618  0.338677
  0.659864  -0.668690  0.342685
  0.763183  -0.545303  0.346693
  0.843874  -0.406060  0.350701
  0.899517  -0.255050  0.354709
  0.928421  -0.096731  0.358717
  0.929682  0.064202  0.362725
  0.903216  0.222951  0.366733
  0.849769  0.374757  0.370741
  0.770900  0.515050  0.374749
  0.668941  0.639579  0.378758
  0.546937  0.744547  0.382766
  0.408556  0.826733  0.386774
  0.257985  0.883591  0.390782
  0.099808  0.913334  0.394790
  -0.061135  0.914999  0.398798
  -0.219888  0.888480  0.402806
  -0.371537  0.834544  0.406814
  -0.511357  0.754811  0.410822
  -0.634965  0.651718  0.414830
  -0.738460  0.528443  0.418838
  -0.818548  0.388821  0.422846
  -0.872652  0.237223  0.426854
  -0.899003  0.078431  0.430862
  -0.896705  -0.082518  0.434870
  -0.865767  -0.240485  0.438878
  -0.807123  -0.390391  0.442886
  -0.722600  -0.527386  0.446894
  -0.614878  -0.647003  0.450902
  -0.487410  -0.745311  0.454910
  -0.344316  -0.819049  0.458918
  -0.190257  -0.865738  0.462926
  -0.030291  -0.883773  0.466934
  0.130294  -0.872489  0.470942
  0.286152  -0.832190  0.474950
  0.432053  -0.764153  0.478958
  0.563066  -0.670598  0.482966
  0.674722  -0.554623  0.486974
  0.763180  -0.420111  0.490982
  0.825356  -0.271610  0.494990
  0.859048  -0.114180  0.498998
  0.863017  0.046768  0.503006
  0.837043  0.205657  0.507014
  0.781953  0.356939  0.511022
  0.699598  0.495285  0.515030
  0.592806  0.615776  0.519038
  0.465299  0.714087  0.523046
  0.321566  0.786644  0.527054
  0.166719  0.830769  0.531062
  0.006316  0.844784  0.535070
  -0.153831  0.828089  0.539078
  -0.307871  0.781200  0.543086
  -0.450119  0.705749  0.547094
  -0.575275  0.604437  0.551102
  -0.678626  0.480956  0.555110
  -0.756228  0.339862  0.559118
  -0.805070  0.186418  0.563126
  -0.823202  0.026411  0.567134
  -0.809829  -0.134067  0.571142
  -0.765358  -0.288842  0.575150
  -0.691405  -0.431897  0.579158
  -0.590753  -0.557609  0.583166
  -0.467262  -0.660979  0.587174
  -0.325736  -0.737834  0.591182
  -0.171753  -0.785016  0.595190
  -0.011448  -0.800519  0.599198
  0.148716  -0.783598  0.603206
  0.302211  -0.734819  0.607214
  0.442704  -0.656064  0.611222
  0.564329  -0.550476  0.615230
  0.661937  -0.422354  0.619238
  0.731326  -0.276996  0.623246
  0.769436  -0.120496  0.627255
  0.774511  0.040501  0.631263
  0.746192  0.199071  0.635271
  0.685567  0.348311  0.639279
  0.595157  0.481633  0.643287
  0.478830  0.593069  0.647295
  0.341664  0.677547  0.651303
  0.189743  0.731140  0.655311
  0.029905  0.751269  0.659319
  -0.130553  0.736854  0.663327
  -0.284202  0.688399  0.667335
  -0.423824  0.608007  0.671343
  -0.542756  0.499317  0.675351
  -0.635224  0.367373  0.679359
  -0.696639  0.218413  0.683367
  -0.723853  0.059599  0.687375
  -0.715351  -0.101309  0.691383
  -0.671363  -0.256326  0.695391
  -0.593910  -0.397633  0.699399
  -0.486741  -0.517978  0.703407
  -0.355195  -0.611065  0.707415
  -0.205964  -0.671905  0.711423
  -0.046787  -0.697115  0.715431
  0.113934  -0.685147  0.719439
  0.267564  -0.636423  0.723447
  0.405696  -0.553371  0.727455
  0.520621  -0.440358  0.731463
  0.605780  -0.303502  0.735471
  0.656167  -0.150385  0.739479
  0.668671  0.010329  0.743487
  0.642313  0.169367  0.747495
  0.578382  0.317361  0.751503
  0.480428  0.445412  0.755511
  0.354138  0.545635  0.759519
  0.207053  0.611682  0.763527
  0.048177  0.639194  0.767535
  -0.112543  0.626143  0.771543
  -0.264811  0.573058  0.775551
  -0.398643  0.483086  0.779559
  -0.505036  0.361886  0.783567
  -0.576612  0.217357  0.787575
  -0.608188  0.059188  0.791583
  -0.597230  -0.101738  0.795591
  -0.544145  -0.254062  0.799599
  -0.452381  -0.386739  0.803607
  -0.328315  -0.489864  0.807615
  -0.180912  -0.555462  0.811623
  -0.021168  -0.578185  0.815631
  0.138642  -0.555851  0.819639
  0.285871  -0.489778  0.823647
  0.408499  -0.384857  0.827655
  0.496155  -0.249332  0.831663
  0.541075  -0.094293  0.835671
  0.538918  0.067123  0.839679
  0.489339  0.220768  0.843687
  0.396254  0.352697  0.847695
  0.267736  0.450465  0.851703
  0.115511  0.504396  0.855711
  -0.045948  0.508696  0.859719
  -0.200672  0.462283  0.863727
  -0.332733  0.369221  0.867735
  -0.427913  0.238650  0.871743
  -0.475368  0.084172  0.875752
  -0.469087  -0.077334  0.879760
  -0.408960  -0.227391  0.883768
  -0.301264  -0.347987  0.887776
  -0.158430  -0.423818  0.891784
  0.001994  -0.444470  0.895792
  0.159192  -0.406225  0.899800
  0.291607  -0.313205  0.903808
  0.379925  -0.177560  0.907816
  0.410165  -0.018500  0.911824
  0.376404  0.139900  0.915832
  0.282654  0.272032  0.919840
  0.143367  0.354896  0.923848
  -0.017810  0.372514  0.927856
  -0.171235  0.319857  0.931864
  -0.286283  0.205392  0.935872
  -0.337625  0.051339  0.939880
  -0.311736  -0.109072  0.943888
  -0.212183  -0.237639  0.947896
  -0.061897  -0.300080  0.951904
  0.099268  -0.276366  0.955912
  0.222862  -0.169960  0.959920
  0.265874  -0.012413  0.963928
  0.208132  0.140645  0.967936
  0.067723  0.225252  0.971944
  -0.094130  0.196615  0.975952
  -0.189329  0.061913  0.979960
  -0.148524  -0.098731  0.983968
  0.008839  -0.154355  0.987976
  0.122756  -0.029978  0.991984
  0.000922  0.089438  0.995992
  0.000000  0.000000  1.000000
